ply
format ascii 1.0
element vertex 1247
property float x
property float y
property float z
property uchar red
property uchar green
property uchar blue
end_header
-0.526876 -0.030761 -0.062100 0 127 127
-0.575991 0.034213 -0.301185 127 127 0
0.558836 -0.112158 0.060680 0 127 127
-0.369024 -0.104113 0.200181 255 0 0
-0.509536 -0.102927 -0.200139 0 127 127
-0.091153 -0.028102 0.337068 153 76 0
-0.031510 0.014751 -0.098480 153 0 76
0.495142 -0.030760 -0.130466 0 127 127
-0.505483 0.012140 0.122108 153 76 0
-0.446485 -0.030760 -0.329780 0 127 127
-0.392197 -0.104113 0.110107 0 127 127
0.288038 -0.114010 -0.316104 0 127 127
0.190745 -0.104113 -0.103575 255 0 0
-0.073261 0.006499 -0.267315 76 153 0
0.069935 -0.124270 0.348203 0 127 127
0.260510 -0.104113 -0.182732 0 127 127
0.138086 0.590210 -0.450568 127 127 0
-0.018430 0.060571 -0.308658 127 127 0
0.105882 0.353572 -0.365175 0 255 0
-0.198582 0.448544 -0.390621 0 255 0
-0.191332 -0.001350 -0.217033 153 76 0
0.265515 0.177989 -0.340118 127 127 0
0.310411 -0.030761 0.024933 0 127 127
-0.167374 0.070822 -0.289416 0 255 0
-0.020055 -0.030760 -0.217794 0 127 127
0.425592 -0.030760 0.576287 0 127 127
0.322069 -0.104113 0.004219 0 127 127
0.025885 0.014751 -0.154695 153 0 76
0.432901 -0.102927 -0.320010 0 127 127
-0.583165 -0.102927 -0.426566 0 127 127
0.675508 -0.030760 0.575081 0 127 127
0.060549 0.647848 -0.463286 127 127 0
0.387903 -0.028102 0.154269 0 127 127
0.659490 -0.139428 -0.279109 0 127 127
-0.423672 0.523029 -0.432567 127 127 0
-0.230021 0.014751 0.164825 153 76 0
-0.215806 -0.124919 0.345623 0 127 127
0.507549 -0.138580 0.010675 0 127 127
-0.249248 0.382405 -0.372900 0 255 0
-0.521852 -0.113430 0.248211 0 127 127
-0.095185 -0.030760 -0.143705 153 76 0
-0.188181 -0.121267 0.059942 0 127 127
-0.628957 -0.085137 0.580840 0 127 127
0.478300 -0.110597 -0.319003 0 127 127
-0.604691 0.643098 -0.459768 127 127 0
0.594903 -0.102927 0.101400 0 127 127
0.603718 -0.102927 0.515240 0 127 127
-0.498956 -0.102927 0.263697 0 127 127
-0.503538 -0.137468 0.529955 0 127 127
-0.254723 -0.104113 -0.224330 0 127 127
-0.058502 -0.139428 0.241428 0 127 127
-0.120609 0.109596 -0.321793 127 127 0
-0.066766 0.075612 -0.312688 127 127 0
-0.410113 0.379665 -0.394155 127 127 0
0.377409 0.014751 -0.244887 153 76 0
-0.613836 -0.104113 -0.114981 255 0 0
0.001496 -0.030761 0.005404 153 76 0
0.417489 -0.024621 0.047508 0 127 127
0.660725 -0.139428 -0.314309 0 127 127
-0.600923 0.061562 -0.306130 127 127 0
0.540571 0.007114 0.043746 204 51 127
-0.625541 -0.102927 0.386787 0 127 127
0.196828 -0.139428 -0.366273 0 127 127
0.136539 -0.139428 -0.077832 0 127 127
-0.254365 0.014751 0.314642 153 76 0
-0.357543 0.419933 -0.382955 0 255 0
-0.158524 -0.030760 0.402835 153 76 0
-0.543886 -0.102927 -0.046264 255 0 0
-0.436540 0.181924 -0.341173 127 127 0
0.726224 -0.131451 0.113508 0 127 127
-0.573093 -0.139428 0.208053 0 127 127
-0.114902 0.368629 -0.391198 127 127 0
0.544138 -0.030760 -0.144030 0 127 127
-0.526137 -0.139428 0.149430 0 127 127
0.646518 -0.104113 -0.145334 0 127 127
-0.478265 -0.030760 0.357787 0 127 127
-0.176223 0.408592 -0.401905 127 127 0
0.472719 -0.128732 -0.093760 0 127 127
-0.525819 -0.128824 0.352100 0 127 127
-0.126108 -0.028102 0.396904 0 127 127
-0.032255 -0.102927 -0.401094 0 127 127
-0.436735 -0.030761 -0.107932 153 76 0
0.108647 0.118943 -0.302309 0 255 0
0.301982 -0.140156 0.293090 0 127 127
0.474656 -0.102927 0.510751 0 127 127
0.516672 -0.126525 -0.044539 0 127 127
0.243042 0.009534 -0.117608 153 0 76
-0.324724 -0.028102 -0.023600 0 127 127
-0.369900 -0.140156 0.092262 0 127 127
-0.572960 -0.120652 -0.173363 0 127 127
-0.194164 -0.102927 -0.420075 0 127 127
0.217844 -0.030760 0.170386 153 76 0
-0.005597 -0.034924 0.580840 0 127 127
-0.035065 0.593784 -0.451525 127 127 0
-0.467669 -0.115700 -0.057823 0 127 127
-0.626911 -0.030760 0.515303 0 127 127
0.463404 -0.030760 -0.326093 0 127 127
-0.220858 -0.110932 -0.194955 0 127 127
-0.309598 -0.030760 0.450884 153 76 0
0.412324 0.549375 -0.417637 127 127 0
-0.523296 -0.028102 -0.154132 153 76 0
0.044610 0.275823 -0.366332 127 127 0
0.113046 -0.102927 0.401523 0 127 127
0.508380 -0.102927 -0.379601 0 127 127
-0.307820 -0.004283 -0.239974 153 76 0
-0.052571 0.395401 -0.376382 0 255 0
-0.382002 -0.028102 0.280071 0 127 127
-0.265989 -0.030760 0.536642 0 127 127
-0.538401 0.471321 -0.418713 127 127 0
-0.016588 -0.134293 -0.230825 0 127 127
0.389178 -0.028102 -0.038167 0 127 127
0.170453 -0.028102 0.098384 0 127 127
-0.598060 0.014751 -0.059954 153 76 0
0.414941 0.511959 -0.426458 127 127 0
0.243295 -0.030761 -0.070904 153 76 0
-0.498616 -0.069197 -0.446110 0 127 127
-0.545996 -0.102927 0.120523 0 127 127
0.387762 0.160978 -0.335561 127 127 0
-0.627389 -0.102927 -0.288384 0 127 127
-0.183576 0.355861 -0.387777 127 127 0
0.257869 0.445804 -0.411876 127 127 0
0.773839 -0.037648 -0.348613 0 127 127
-0.280924 -0.102927 0.537277 0 127 127
-0.311841 -0.115186 -0.017036 0 127 127
-0.113200 -0.102927 -0.338330 0 127 127
0.383444 -0.108569 -0.193020 0 127 127
-0.229612 0.536366 -0.414152 0 255 0
0.399871 0.320089 -0.377772 127 127 0
-0.204462 0.575769 -0.424709 0 255 0
0.232394 -0.028102 0.280812 153 76 0
0.084303 0.014751 0.268027 153 76 0
-0.117299 0.008064 -0.216029 153 76 0
-0.415885 -0.026828 0.433920 153 76 0
0.482293 -0.137750 -0.393348 0 127 127
0.084482 0.661059 -0.464646 127 127 0
-0.284247 -0.030760 0.155998 153 76 0
0.198746 -0.113779 0.572448 0 127 127
0.209406 0.014751 0.377697 153 76 0
-0.352467 0.148656 -0.332259 127 127 0
-0.383494 -0.134412 -0.143945 0 127 127
-0.147083 -0.119193 -0.083443 0 127 127
-0.164004 -0.030760 0.549607 0 127 127
0.238426 0.348396 -0.363788 0 255 0
0.670834 -0.122654 -0.427381 0 127 127
-0.300777 -0.122045 0.361081 0 127 127
0.158748 -0.030760 0.185644 153 76 0
0.124636 0.014751 0.202392 153 76 0
0.001565 -0.104113 -0.116582 0 127 127
0.164781 0.071016 -0.289468 0 255 0
0.228870 -0.115620 -0.314538 0 127 127
0.429941 0.285273 -0.346875 127 127 0
-0.115194 0.009534 0.038733 153 0 76
0.272523 0.625803 -0.460104 127 127 0
0.405953 -0.104040 -0.370133 0 127 127
-0.281040 -0.030760 0.279204 0 127 127
0.297897 -0.030760 0.321906 0 127 127
0.509459 -0.102927 -0.155257 0 127 127
0.773839 -0.035302 -0.421530 0 127 127
0.314557 -0.102927 -0.183683 0 127 127
0.439849 0.339866 -0.367839 127 127 0
0.711336 -0.030760 0.439478 0 127 127
0.737916 -0.127071 0.439005 0 127 127
0.459274 -0.132947 0.532779 0 127 127
-0.442076 -0.030760 0.135981 0 127 127
-0.281473 -0.130449 0.462213 0 127 127
-0.232950 -0.030760 -0.368663 0 127 127
0.212909 0.361083 -0.389176 127 127 0
-0.510733 0.014751 -0.197917 153 76 0
-0.581269 -0.027684 -0.186109 0 127 127
0.134607 -0.109327 -0.063405 0 127 127
0.106968 -0.136318 0.160242 0 127 127
0.254596 -0.028102 0.349787 0 127 127
0.009726 -0.125059 0.177042 0 127 127
0.113436 -0.030760 0.084611 153 76 0
0.293009 -0.102927 0.328170 0 127 127
-0.429899 0.470432 -0.396486 0 255 0
0.261531 0.014751 0.301536 153 76 0
0.134387 -0.030760 0.564443 0 127 127
-0.072437 -0.028102 -0.199912 153 76 0
0.627165 -0.139428 0.240999 0 127 127
0.244724 -0.028102 -0.003337 0 127 127
-0.387020 -0.126220 -0.422200 0 127 127
-0.128793 0.014685 0.423228 153 76 0
-0.496518 0.491592 -0.402155 0 255 0
-0.143945 0.082842 -0.314625 127 127 0
0.153009 0.014751 0.380057 153 76 0
-0.443666 0.600717 -0.431394 0 255 0
-0.288650 0.014751 0.438290 153 76 0
0.112532 -0.104113 -0.380186 0 127 127
0.361235 -0.028102 0.060464 0 127 127
-0.262301 -0.030760 0.408639 0 127 127
-0.338975 -0.114659 0.115635 255 0 0
-0.347814 -0.030761 -0.086830 0 127 127
0.135855 0.629654 -0.461136 127 127 0
0.233206 0.585966 -0.427441 0 255 0
0.553176 -0.102927 -0.337870 0 127 127
-0.108184 -0.102927 0.399456 0 127 127
0.371280 0.534302 -0.413599 127 127 0
0.579912 -0.030760 0.031561 204 51 127
-0.024179 0.014751 0.425124 153 76 0
0.164592 0.213988 -0.327775 0 255 0
-0.459889 0.269227 -0.342576 0 255 0
-0.304409 0.330638 -0.381019 127 127 0
0.376854 -0.104113 0.059369 0 127 127
0.000652 0.088887 -0.316245 127 127 0
-0.382351 -0.113913 0.059042 0 127 127
0.131561 0.216540 -0.328459 0 255 0
0.169285 -0.028102 -0.091754 0 127 127
-0.189366 -0.044210 0.580840 0 127 127
-0.631329 -0.073865 -0.446110 0 127 127
0.297293 0.252970 -0.338220 0 255 0
-0.281731 0.430686 -0.385836 0 255 0
0.408708 -0.069191 -0.446110 0 127 127
-0.411283 0.640919 -0.442165 127 127 0
0.296742 -0.030760 -0.203164 0 127 127
-0.451193 -0.076344 -0.446110 0 127 127
0.773839 -0.057625 -0.198957 0 127 127
0.222254 -0.104113 -0.019454 0 127 127
-0.106130 -0.102927 0.159892 0 127 127
-0.191508 -0.123072 0.319941 0 127 127
0.306203 0.346359 -0.363242 0 255 0
0.360477 0.494662 -0.402978 0 255 0
-0.636183 -0.134001 0.018046 0 127 127
-0.442206 -0.129167 0.162109 0 127 127
-0.321513 -0.102927 0.245538 255 0 0
0.094821 0.429073 -0.385404 0 255 0
-0.373861 -0.030760 0.086348 0 127 127
-0.280997 -0.128168 0.297552 0 127 127
0.126895 -0.030761 -0.097913 0 127 127
-0.681167 -0.113082 -0.197225 0 127 127
-0.096150 -0.122368 0.049617 0 127 127
-0.394701 0.009534 0.087019 153 0 76
-0.452084 -0.030760 0.484372 0 127 127
-0.684628 -0.104113 -0.313476 0 127 127
-0.143417 -0.139428 0.237462 0 127 127
-0.422366 -0.127854 0.093706 0 127 127
-0.469849 0.299737 -0.350750 0 255 0
-0.127166 -0.024525 0.448261 0 127 127
-0.168470 -0.030761 0.020982 0 127 127
0.415428 0.439255 -0.406890 127 127 0
0.224051 -0.102927 0.546787 0 127 127
-0.001433 -0.028102 -0.136802 0 127 127
-0.143259 0.141609 -0.308382 0 255 0
0.662953 -0.104113 -0.098195 0 127 127
0.457469 -0.102927 -0.371395 0 127 127
0.745097 -0.102927 0.285430 0 127 127
-0.494458 0.009645 -0.009104 153 0 76
0.546649 -0.024695 0.017134 0 127 127
-0.480430 -0.030760 0.548818 0 127 127
0.733756 -0.128772 -0.085786 0 127 127
0.773676 -0.101690 -0.038461 0 127 127
-0.521543 -0.139428 -0.275170 0 127 127
-0.023296 -0.104113 0.147146 255 0 0
0.059101 -0.102927 0.529687 0 127 127
0.375176 0.027664 -0.299669 127 127 0
-0.311372 -0.028102 0.276188 0 127 127
-0.169610 -0.104113 0.208764 0 127 127
-0.383098 -0.102927 -0.200033 0 127 127
-0.086392 -0.030760 -0.355253 0 127 127
0.695409 -0.138171 0.470291 0 127 127
0.056880 0.605939 -0.432793 0 255 0
-0.211510 0.045014 -0.282501 0 255 0
-0.295984 -0.030760 0.061875 0 127 127
0.628060 0.001607 -0.038435 204 51 127
0.044930 -0.107336 0.458116 0 127 127
0.319558 0.389997 -0.396923 127 127 0
-0.591003 -0.046223 -0.446110 0 127 127
0.261757 0.014751 0.451737 153 76 0
0.380806 0.014751 0.309128 153 76 0
-0.285515 -0.125674 0.424437 0 127 127
0.329526 0.514061 -0.430164 127 127 0
0.278899 -0.104113 0.141954 0 127 127
0.355651 -0.132694 0.499038 0 127 127
-0.443561 0.014751 0.184135 153 76 0
-0.578536 0.014751 0.333635 153 76 0
-0.475876 0.014751 0.266688 153 76 0
-0.393018 0.452988 -0.413801 127 127 0
-0.594778 -0.139428 -0.080394 0 127 127
-0.295722 -0.030761 -0.114385 153 76 0
0.330009 0.014751 -0.029517 153 76 0
-0.533664 -0.104113 0.487428 0 127 127
-0.220583 -0.030760 0.299816 0 127 127
-0.523800 -0.030760 0.330404 0 127 127
-0.301569 -0.121637 -0.417199 0 127 127
-0.231383 -0.115822 0.057186 255 0 0
-0.522014 -0.113311 -0.256108 0 127 127
0.460218 -0.133229 0.443294 0 127 127
-0.226696 -0.135865 0.298457 0 127 127
0.540085 -0.030760 -0.341208 0 127 127
0.584127 -0.139428 -0.027411 0 127 127
-0.053130 -0.104113 0.002389 0 127 127
-0.363795 -0.030760 -0.355356 0 127 127
0.231639 -0.030929 0.578431 0 127 127
0.234012 0.215363 -0.328144 0 255 0
-0.268458 -0.131558 0.547514 0 127 127
0.115418 0.009534 -0.127138 153 76 0
0.528350 -0.030760 0.147622 0 127 127
-0.476987 0.680403 -0.452950 127 127 0
0.071818 0.581859 -0.448330 127 127 0
-0.193784 0.009534 0.129413 153 0 76
0.698962 -0.102927 0.416768 0 127 127
-0.407997 0.009534 -0.057660 153 0 76
-0.334317 -0.111060 -0.196617 0 127 127
-0.203430 0.386206 -0.395907 127 127 0
0.701360 -0.102927 0.022342 255 0 0
0.202472 0.561684 -0.442924 127 127 0
-0.307671 0.172063 -0.316542 0 255 0
0.277014 -0.126347 0.557120 0 127 127
-0.531981 -0.129660 0.097073 0 127 127
0.261733 0.014751 0.193614 153 76 0
-0.209095 0.009534 -0.135492 153 0 76
0.132120 -0.137413 0.108223 0 127 127
-0.037791 -0.028102 0.318393 153 76 0
-0.006528 -0.104113 0.420858 0 127 127
-0.549743 -0.102927 0.219613 255 0 0
-0.250223 0.576061 -0.446776 127 127 0
0.326307 -0.030761 -0.113064 0 127 127
0.403130 0.177036 -0.317874 0 255 0
-0.147165 0.014751 -0.006645 153 0 76
0.240107 0.465275 -0.417093 127 127 0
-0.451971 0.425658 -0.406478 127 127 0
0.272019 -0.004754 -0.239872 153 76 0
0.119611 -0.138292 0.433213 0 127 127
0.650992 -0.126598 0.091686 0 127 127
0.544464 -0.121369 -0.103730 0 127 127
-0.501529 -0.030760 0.279788 0 127 127
0.752690 -0.030760 -0.284621 0 127 127
0.249601 -0.102927 -0.240015 0 127 127
0.341401 0.014751 -0.120535 153 76 0
-0.006538 0.641935 -0.442438 0 255 0
-0.580412 -0.122395 0.049581 0 127 127
0.171703 0.432975 -0.408438 127 127 0
-0.233534 0.224220 -0.330516 0 255 0
-0.329718 0.014751 0.410070 153 76 0
0.148326 0.283895 -0.346506 0 255 0
0.311872 -0.104113 -0.328673 0 127 127
0.262695 0.535760 -0.435978 127 127 0
0.309255 -0.078274 -0.446110 0 127 127
-0.622983 -0.017656 0.208040 153 76 0
-0.124187 -0.122013 -0.428250 0 127 127
-0.362649 -0.036033 0.580840 0 127 127
-0.024826 -0.018242 -0.242772 153 76 0
0.704092 -0.126206 0.044070 0 127 127
-0.189530 -0.030760 0.478397 0 127 127
-0.680276 -0.113724 0.562877 0 127 127
-0.348974 -0.030760 0.525227 0 127 127
-0.424060 0.433738 -0.408643 127 127 0
-0.330371 0.285713 -0.368982 127 127 0
0.170827 -0.125175 0.068915 0 127 127
0.311015 0.666572 -0.463722 127 127 0
0.168625 0.597271 -0.430471 0 255 0
-0.300894 0.027610 -0.277837 127 127 0
0.277291 -0.012916 0.473873 153 76 0
0.219157 -0.139428 -0.266458 0 127 127
0.038977 0.014751 0.448321 153 76 0
0.018708 -0.120341 -0.256615 0 127 127
-0.284481 -0.140156 0.102274 0 127 127
0.202656 -0.138122 0.378591 0 127 127
0.157447 0.315568 -0.354992 0 255 0
0.379579 -0.140156 0.350916 0 127 127
0.043117 -0.102927 0.095052 0 127 127
0.690407 -0.030761 0.015485 204 51 127
-0.693232 -0.068382 -0.165245 0 127 127
-0.207785 -0.030760 0.428902 0 127 127
-0.531564 -0.030760 0.191440 0 127 127
0.142414 -0.128166 0.420428 0 127 127
0.480490 -0.030761 -0.025728 0 127 127
0.368951 0.069945 -0.289181 0 255 0
-0.316193 -0.030760 0.031593 153 76 0
0.546759 -0.139428 0.500232 0 127 127
-0.251131 -0.030760 -0.140733 0 127 127
0.053267 -0.102927 -0.142553 0 127 127
-0.628691 0.010137 0.046745 153 76 0
-0.170468 0.607822 -0.455286 127 127 0
0.555967 -0.119356 0.566616 0 127 127
-0.374653 0.480963 -0.399307 127 127 0
0.295359 -0.129131 -0.094461 0 127 127
0.071140 -0.124885 0.097944 0 127 127
-0.436536 0.009554 -0.142508 153 0 76
0.638274 -0.030760 0.292841 0 127 127
0.773739 -0.092965 0.415911 0 127 127
0.486448 -0.030760 0.227730 0 127 127
-0.093473 -0.139428 -0.077243 0 127 127
-0.155013 -0.113742 -0.127637 0 127 127
0.681239 -0.030760 0.338047 0 127 127
-0.577092 0.020974 -0.276060 127 127 0
-0.336608 0.456814 -0.414826 127 127 0
-0.132611 -0.030760 -0.303435 0 127 127
-0.519698 0.552900 -0.440571 127 127 0
-0.297731 -0.117763 0.055167 255 0 0
-0.597000 0.266247 -0.341777 0 255 0
-0.441670 -0.127546 -0.420067 0 127 127
-0.596653 -0.030760 0.414330 0 127 127
0.437770 -0.030760 0.135940 0 127 127
0.143697 -0.030760 0.133019 153 76 0
-0.006198 -0.102927 -0.007113 255 0 0
-0.034847 0.253937 -0.360468 127 127 0
0.270001 -0.126530 -0.301169 0 127 127
0.124425 -0.028102 0.227811 0 127 127
-0.444308 -0.139428 0.459894 0 127 127
0.177807 0.247159 -0.358652 127 127 0
-0.515451 -0.102927 0.192320 255 0 0
-0.221443 -0.013734 0.472745 153 76 0
0.010812 -0.102927 0.108028 0 127 127
0.057302 -0.117136 0.130844 0 127 127
-0.344064 -0.140156 0.378497 0 127 127
0.737381 -0.104113 0.345821 0 127 127
-0.189419 0.014751 0.276244 127 0 127
-0.105539 -0.028102 0.238156 0 127 127
-0.476994 0.580227 -0.425904 0 255 0
0.368079 0.363237 -0.389753 127 127 0
-0.590695 -0.102927 -0.152064 0 127 127
0.187970 -0.104113 0.121691 0 127 127
-0.315421 -0.140156 0.018103 0 127 127
0.183488 0.653911 -0.463910 127 127 0
-0.522660 0.014751 0.092768 153 76 0
-0.122608 -0.030760 0.290813 153 76 0
-0.124432 0.351530 -0.364628 0 255 0
0.356513 -0.030760 0.458014 0 127 127
-0.323265 -0.030760 0.482010 0 127 127
0.355433 -0.028102 -0.083719 0 127 127
0.179134 -0.139428 0.469494 0 127 127
0.652215 -0.104113 0.064290 0 127 127
-0.447885 -0.102927 0.123115 0 127 127
0.037119 -0.104113 0.561901 0 127 127
-0.549334 -0.028102 0.410334 0 127 127
0.200608 -0.124651 0.046522 0 127 127
-0.206433 -0.102927 0.553684 0 127 127
-0.411080 0.419936 -0.382956 0 255 0
0.104074 -0.121792 0.050398 0 127 127
0.613038 -0.104113 0.190307 0 127 127
-0.329986 -0.028102 0.353721 0 127 127
0.642035 0.009801 -0.002877 204 51 127
0.550658 -0.117563 0.403193 0 127 127
-0.370375 -0.013254 0.473406 0 127 127
0.162675 -0.030760 0.391879 0 127 127
0.595494 -0.028678 0.117961 0 127 127
-0.359821 -0.102927 0.437258 0 127 127
-0.236905 -0.137890 -0.244997 0 127 127
0.091748 -0.104113 0.099968 255 0 0
0.338397 -0.042533 0.580840 0 127 127
-0.003205 0.397909 -0.399043 127 127 0
-0.119863 -0.131819 0.373262 0 127 127
0.032527 -0.104113 0.328762 0 127 127
-0.065227 0.014751 0.133555 153 0 76
-0.572034 -0.102927 0.011258 0 127 127
0.514409 -0.030761 -0.105354 0 127 127
0.415601 0.014751 0.369696 153 76 0
-0.502652 -0.104113 0.450961 0 127 127
-0.410554 -0.030760 0.487415 0 127 127
-0.308203 0.512496 -0.429745 127 127 0
0.317741 0.014353 -0.179252 153 76 0
-0.188320 0.468267 -0.417895 127 127 0
-0.118991 0.000266 0.475025 153 76 0
0.168164 0.631351 -0.439602 0 255 0
-0.408688 -0.126915 0.212727 0 127 127
-0.460399 0.393927 -0.375987 0 255 0
0.435435 -0.123802 0.349752 0 127 127
-0.429674 -0.138833 0.126306 0 127 127
0.364598 0.620539 -0.458694 0 255 0
0.035429 -0.104113 0.020824 0 127 127
0.439840 -0.104113 -0.197769 0 127 127
-0.170372 -0.104113 -0.340497 0 127 127
-0.280452 -0.050604 -0.446110 0 127 127
-0.385978 -0.102927 -0.169742 0 127 127
0.241710 0.073878 -0.312223 127 127 0
0.432247 -0.122155 -0.165890 0 127 127
-0.118737 -0.030760 -0.193169 153 76 0
-0.528768 0.525420 -0.433208 127 127 0
0.428643 -0.102927 -0.352569 0 127 127
0.126521 0.010075 0.147079 153 76 0
0.677138 -0.139428 -0.107154 0 127 127
-0.306322 0.009988 -0.178296 153 76 0
-0.586560 -0.003340 -0.284855 127 127 0
0.719722 -0.030760 0.270788 0 127 127
-0.059818 0.318406 -0.355752 0 255 0
0.084907 -0.130440 -0.356820 0 127 127
-0.435238 -0.139428 -0.260231 0 127 127
-0.251664 0.299248 -0.350619 0 255 0
0.696625 -0.030760 -0.377923 0 127 127
-0.391205 -0.136153 0.141456 0 127 127
0.038481 -0.030760 -0.380579 0 127 127
-0.047642 -0.120261 0.052299 0 127 127
-0.109673 0.014751 -0.004661 153 76 0
0.020284 0.583494 -0.426779 0 255 0
-0.061849 -0.030761 -0.072823 0 127 127
0.271089 -0.028102 -0.128209 0 127 127
-0.310247 -0.116335 0.080325 0 127 127
-0.487281 -0.102927 -0.420714 0 127 127
-0.554965 0.336809 -0.360683 0 255 0
0.243818 -0.104113 0.307874 0 127 127
-0.387678 -0.030760 -0.372855 0 127 127
0.773839 -0.093637 0.161158 0 127 127
0.020916 -0.114701 -0.058793 0 127 127
-0.671320 -0.119083 0.081474 0 127 127
-0.614234 0.014751 0.241938 153 76 0
-0.110058 0.217954 -0.350827 127 127 0
0.177830 -0.121508 -0.035078 0 127 127
0.147018 -0.104113 0.095251 0 127 127
0.240721 -0.129703 -0.197884 0 127 127
0.516037 -0.030760 0.182859 0 127 127
0.047686 -0.030760 -0.140033 153 76 0
-0.497087 -0.102927 -0.368147 0 127 127
0.366452 -0.104113 0.384259 0 127 127
-0.667204 -0.046801 -0.446110 0 127 127
0.458962 -0.030760 -0.282279 0 127 127
0.665026 -0.139428 -0.048200 0 127 127
0.408404 -0.104328 0.337887 0 127 127
0.002313 0.014751 0.467133 153 76 0
-0.144501 -0.104113 0.158888 0 127 127
0.576796 -0.130903 0.099468 0 127 127
-0.582155 0.312443 -0.354155 0 255 0
0.012408 -0.123713 -0.097411 0 127 127
0.321368 0.624591 -0.459779 127 127 0
-0.542234 0.388503 -0.396523 127 127 0
-0.521055 -0.139428 -0.025492 0 127 127
0.571899 0.015387 0.053666 204 51 127
0.287109 -0.120775 0.051709 0 127 127
0.460851 -0.140156 -0.199266 0 127 127
-0.693232 -0.090213 0.090874 0 127 127
0.232007 -0.126059 0.092398 0 127 127
0.021445 0.329876 -0.358826 0 255 0
-0.202916 -0.030761 -0.067947 0 127 127
-0.052342 -0.102927 -0.136107 0 127 127
-0.089092 0.663226 -0.448142 127 127 0
-0.296468 0.469121 -0.418123 127 127 0
0.361163 -0.131021 -0.124580 0 127 127
-0.169511 0.014751 -0.166053 153 76 0
0.092837 0.139820 -0.307903 0 255 0
-0.296462 -0.124275 0.255836 0 127 127
-0.693232 -0.047313 0.171213 0 127 127
0.111723 -0.030760 0.465709 153 76 0
0.236257 -0.104113 0.022143 255 0 0
-0.178420 -0.030760 -0.293227 0 127 127
-0.274952 -0.030760 -0.401564 0 127 127
0.480323 -0.030760 -0.258106 0 127 127
0.501427 -0.030760 -0.346986 0 127 127
-0.361179 -0.028102 0.241962 0 127 127
-0.116327 -0.030761 -0.077808 0 127 127
0.304746 -0.139944 -0.261775 0 127 127
-0.594438 -0.026536 0.298880 0 127 127
0.162045 0.663282 -0.448157 0 255 0
0.208161 -0.104113 -0.423324 0 127 127
0.440774 -0.010017 0.308197 153 76 0
-0.281780 -0.028102 0.360524 0 127 127
0.055091 0.409673 -0.402195 127 127 0
0.011877 -0.123987 0.551177 0 127 127
0.109178 -0.135873 0.368954 0 127 127
0.773839 -0.053999 -0.024829 0 127 127
-0.276442 0.256571 -0.361173 127 127 0
0.420414 -0.030760 -0.425384 0 127 127
0.634117 -0.005265 0.208515 204 51 127
0.331815 0.145999 -0.309558 0 255 0
-0.346907 -0.104113 -0.161402 0 127 127
-0.545821 0.257274 -0.339373 0 255 0
-0.608660 0.004948 -0.271766 127 127 0
-0.190455 0.014751 -0.188443 153 76 0
-0.566198 -0.102927 -0.225277 0 127 127
-0.128034 -0.104113 -0.212082 0 127 127
-0.574063 -0.137691 0.528794 0 127 127
0.642311 -0.030760 0.542150 0 127 127
-0.391159 -0.102927 0.370272 0 127 127
0.520647 -0.102927 0.357966 0 127 127
-0.648852 -0.130095 0.380520 0 127 127
0.202350 0.379895 -0.372228 0 255 0
0.093291 -0.030760 0.515802 0 127 127
0.731538 -0.104113 -0.415511 0 127 127
-0.448074 0.009534 -0.056217 153 76 0
-0.421303 0.014751 0.265668 153 76 0
-0.557116 0.014751 0.245556 153 76 0
-0.083072 0.428014 -0.385120 0 255 0
-0.222627 -0.139428 -0.091447 0 127 127
-0.060115 0.363096 -0.389715 127 127 0
-0.240801 0.415131 -0.381669 0 255 0
-0.450605 -0.102927 0.458050 0 127 127
0.548589 -0.136921 0.532058 0 127 127
-0.402783 -0.104113 0.014042 0 127 127
0.477444 -0.137059 -0.009573 0 127 127
-0.455180 -0.137455 -0.394879 0 127 127
-0.693232 -0.040635 -0.231345 0 127 127
0.129214 0.285928 -0.369039 127 127 0
-0.031928 0.024353 -0.298954 127 127 0
0.415845 -0.111286 0.033957 0 127 127
-0.314654 0.424661 -0.406211 127 127 0
0.077716 -0.138403 0.137302 0 127 127
0.071449 -0.125020 -0.420701 0 127 127
0.005614 0.014751 0.414409 153 76 0
0.366094 -0.123286 -0.305808 0 127 127
-0.381620 -0.102927 0.554231 0 127 127
0.171315 0.082939 -0.314651 127 127 0
0.193613 0.014751 0.328566 153 76 0
0.072083 -0.140156 0.298391 0 127 127
-0.257245 -0.104113 0.385274 0 127 127
0.091552 0.063329 -0.287408 0 255 0
0.352871 -0.133523 -0.402717 0 127 127
0.050281 -0.008451 -0.221985 153 76 0
0.202289 -0.105517 -0.226502 0 127 127
0.198011 0.470962 -0.396628 0 255 0
-0.263644 -0.008659 -0.282010 127 127 0
0.226510 -0.102927 -0.151259 0 127 127
0.245075 -0.139428 0.511758 0 127 127
-0.662095 -0.104113 0.477186 0 127 127
0.266206 -0.102927 0.090930 0 127 127
0.671232 -0.104113 -0.236413 0 127 127
0.075165 0.291720 -0.370591 127 127 0
0.393070 -0.115211 0.267637 0 127 127
0.377665 0.014751 -0.061472 153 76 0
-0.137252 0.566969 -0.444340 0 255 0
0.170319 -0.102927 -0.411600 0 127 127
-0.481976 0.001253 0.475025 153 76 0
-0.114450 0.305755 -0.352363 0 255 0
0.080671 -0.102927 -0.079354 255 0 0
0.168581 -0.004465 -0.218420 153 76 0
-0.587879 -0.030760 0.448987 0 127 127
0.327861 0.492279 -0.402339 0 255 0
0.744782 -0.104113 0.407357 0 127 127
0.606111 -0.104113 0.400848 0 127 127
-0.125780 -0.030760 0.485056 0 127 127
-0.014847 0.132720 -0.306000 0 255 0
-0.227231 0.149213 -0.310420 0 255 0
-0.192520 -0.117295 0.434802 0 127 127
-0.029374 -0.113957 -0.437151 0 127 127
0.273411 -0.138243 0.391069 0 127 127
0.373664 -0.104113 -0.406307 0 127 127
-0.499756 -0.125255 -0.088246 0 127 127
-0.393948 -0.104646 -0.066697 0 127 127
-0.119715 0.008191 -0.291743 127 127 0
-0.462573 0.014751 0.227050 153 76 0
-0.499085 0.607293 -0.433156 0 255 0
0.466515 -0.116009 0.078121 0 127 127
-0.548542 -0.030760 -0.209301 0 127 127
0.392088 0.598623 -0.452822 127 127 0
-0.590522 0.226557 -0.331143 127 127 0
0.290313 -0.132085 0.358763 0 127 127
-0.686439 -0.108663 -0.046764 255 0 0
0.210182 -0.130023 -0.219284 0 127 127
0.555447 -0.114112 -0.186688 0 127 127
-0.509120 0.014751 0.417139 153 76 0
-0.371382 -0.104113 -0.342102 0 127 127
-0.254279 0.499060 -0.426145 127 127 0
0.670696 -0.027021 -0.007193 204 51 127
0.242157 -0.130225 0.327760 0 127 127
0.699094 -0.129027 0.295912 0 127 127
0.066347 -0.030760 0.182681 0 127 127
0.231006 0.496054 -0.425340 127 127 0
-0.366225 0.643779 -0.462867 127 127 0
-0.298069 -0.028102 0.011437 0 127 127
-0.517146 0.171747 -0.338446 127 127 0
0.412116 -0.140156 0.379902 0 127 127
-0.663892 -0.123745 -0.089760 0 127 127
-0.089213 -0.017622 -0.272463 127 127 0
-0.135259 0.036582 -0.302230 127 127 0
0.589527 -0.030760 -0.385442 0 127 127
-0.253213 -0.028102 -0.083057 153 76 0
0.345541 0.322296 -0.378783 127 127 0
0.607209 -0.139080 -0.384722 0 127 127
0.646587 -0.102927 -0.360253 0 127 127
-0.544178 0.605353 -0.454625 127 127 0
-0.123670 -0.099650 0.580840 0 127 127
-0.188733 0.076070 -0.312810 127 127 0
0.272267 0.024000 -0.298822 127 127 0
0.541362 -0.123042 -0.264068 0 127 127
0.133315 -0.137195 0.025061 0 127 127
0.245741 0.611976 -0.456399 127 127 0
0.026921 0.009534 0.035495 153 0 76
0.207019 -0.030760 -0.275440 0 127 127
0.658794 -0.102927 0.331926 0 127 127
-0.605493 -0.104113 0.553215 0 127 127
0.089671 -0.140156 -0.237854 0 127 127
-0.467684 0.562558 -0.443159 127 127 0
0.478479 -0.102927 -0.179935 0 127 127
-0.644798 -0.131499 -0.305184 0 127 127
0.364037 0.115055 -0.323256 127 127 0
-0.175651 -0.112794 -0.001573 0 127 127
-0.438631 0.348923 -0.363929 0 255 0
-0.186293 -0.030761 -0.007637 0 127 127
0.115490 -0.104113 -0.198509 0 127 127
0.697018 -0.030760 -0.237985 0 127 127
0.444312 -0.128139 -0.092805 0 127 127
0.428085 -0.021661 0.239030 0 127 127
0.619149 -0.102927 0.443217 0 127 127
-0.047183 0.344891 -0.362849 0 255 0
0.136571 -0.132358 -0.290518 0 127 127
0.177961 -0.030760 0.283685 0 127 127
-0.693232 -0.099030 0.268767 0 127 127
0.026521 -0.050071 0.580840 0 127 127
-0.501793 -0.125629 0.393655 0 127 127
-0.138074 0.014751 0.217029 153 76 0
-0.197828 -0.102927 0.138431 255 0 0
-0.260916 -0.028102 0.047445 153 76 0
-0.240698 -0.023254 0.456159 153 76 0
0.749020 -0.102927 -0.001766 255 0 0
0.118236 -0.138115 -0.109357 0 127 127
-0.614019 -0.102927 0.052921 255 0 0
0.222602 -0.121194 0.384025 0 127 127
-0.386901 -0.102927 -0.263622 0 127 127
0.119277 -0.102927 0.451144 0 127 127
0.624508 -0.104113 0.229953 0 127 127
0.195146 -0.126426 0.348048 0 127 127
-0.273468 0.529015 -0.412182 0 255 0
-0.305517 0.009534 -0.143228 153 76 0
0.145733 0.009534 0.063314 153 76 0
-0.042819 -0.055176 -0.446110 0 127 127
-0.045641 -0.128371 0.553814 0 127 127
-0.033482 0.077935 -0.291322 0 255 0
-0.512999 -0.104113 0.539829 0 127 127
-0.405286 -0.104113 -0.386872 0 127 127
0.572871 -0.126481 -0.421779 0 127 127
-0.660110 -0.030761 0.011716 0 127 127
0.345912 0.594040 -0.429605 127 127 0
0.442680 -0.073118 0.580840 0 127 127
0.438792 -0.102927 -0.271248 0 127 127
0.036007 -0.016946 -0.273297 0 127 127
0.204588 0.614304 -0.457023 127 127 0
-0.413451 -0.030760 0.258439 0 127 127
-0.398515 0.250145 -0.337463 0 255 0
-0.666729 -0.030761 -0.089353 0 127 127
0.173879 -0.104113 0.513404 0 127 127
0.113739 0.014751 0.325751 153 76 0
0.135749 -0.104113 0.124435 255 0 0
0.664484 -0.030761 -0.103782 0 127 127
-0.480165 0.496248 -0.425391 127 127 0
0.026365 -0.102927 0.429419 0 127 127
-0.031394 -0.104113 -0.272548 0 127 127
0.323786 0.014751 0.412072 153 76 0
0.600320 -0.139033 0.263637 0 127 127
0.018441 0.632976 -0.461755 127 127 0
-0.635884 -0.102927 -0.235221 0 127 127
-0.354911 -0.140156 0.275021 0 127 127
-0.276647 0.177436 -0.317981 0 255 0
0.010671 0.014751 0.094089 153 0 76
-0.679204 -0.030760 -0.414784 0 127 127
0.761591 -0.030761 -0.085176 0 127 127
0.132042 -0.134611 -0.230088 0 127 127
-0.640762 -0.030760 0.186721 0 127 127
-0.160383 -0.102927 -0.206202 0 127 127
-0.228681 -0.028102 0.086155 0 127 127
-0.493529 0.170022 -0.315995 0 255 0
-0.274479 -0.132667 -0.013319 0 127 127
-0.405488 0.289547 -0.370009 0 255 0
-0.040980 0.309805 -0.375437 127 127 0
-0.430806 0.014751 0.238114 153 76 0
-0.514813 0.261053 -0.362374 127 127 0
-0.341221 0.009534 -0.092475 153 0 76
0.097721 -0.030760 -0.141012 0 127 127
-0.207441 -0.130162 -0.173878 0 127 127
0.064809 -0.102927 0.379283 0 127 127
0.169612 -0.102927 -0.058348 0 127 127
0.725819 -0.131572 0.498278 0 127 127
0.583436 -0.030760 -0.165382 0 127 127
-0.039213 -0.102927 -0.312852 0 127 127
-0.315899 -0.102927 -0.060792 0 127 127
-0.524598 0.200858 -0.346246 127 127 0
0.412529 0.218623 -0.329017 0 255 0
-0.611896 0.177512 -0.335214 127 127 0
-0.148736 0.278653 -0.367090 127 127 0
0.077721 -0.102927 -0.334899 0 127 127
-0.147237 -0.139428 -0.333233 0 127 127
0.453427 -0.102927 0.346403 0 127 127
-0.249271 -0.102927 -0.380718 0 127 127
-0.425086 -0.138807 -0.387205 0 127 127
-0.089479 -0.138537 0.010912 0 127 127
0.383272 0.014751 0.281023 153 76 0
0.067637 0.014751 0.409069 153 76 0
-0.058039 -0.136984 0.275176 0 127 127
-0.453573 0.037077 -0.280374 0 255 0
-0.231597 0.184675 -0.341910 127 127 0
-0.192975 -0.104113 -0.194283 0 127 127
-0.102927 0.483566 -0.400005 0 255 0
-0.610079 -0.104113 -0.245285 0 127 127
0.537036 -0.102927 0.298531 0 127 127
-0.219938 -0.028102 -0.096731 153 76 0
0.665997 -0.104113 -0.181577 0 127 127
0.068246 -0.102927 -0.055687 0 127 127
0.377383 -0.104113 0.214426 255 0 0
0.192670 -0.102927 -0.178379 0 127 127
0.038301 0.351468 -0.386600 127 127 0
-0.268553 0.014751 0.260523 153 76 0
0.119750 0.187700 -0.320731 0 255 0
0.383891 0.271669 -0.365219 127 127 0
-0.130824 -0.102927 -0.316885 0 127 127
0.359216 0.405964 -0.379212 0 255 0
0.155549 -0.102927 0.420851 0 127 127
0.201776 -0.102927 -0.267126 0 127 127
-0.574168 0.014751 0.216621 153 76 0
0.224315 -0.030760 0.461189 0 127 127
-0.148737 0.251312 -0.359764 127 127 0
0.312018 0.469504 -0.418226 127 127 0
0.149352 -0.104113 -0.138035 0 127 127
0.345452 -0.028102 0.324478 153 76 0
0.698829 0.002717 0.105525 204 51 127
0.175828 0.009534 -0.054190 153 0 76
-0.048362 0.508896 -0.406792 0 255 0
-0.507251 -0.102927 0.339334 0 127 127
0.349993 0.566781 -0.444290 127 127 0
-0.142999 0.644804 -0.443206 0 255 0
-0.019699 0.328634 -0.380482 127 127 0
0.698481 -0.104113 -0.135462 0 127 127
-0.205958 -0.030760 0.388612 153 76 0
-0.087892 -0.030760 0.548792 0 127 127
0.314311 -0.102927 -0.048610 0 127 127
0.599921 -0.127159 -0.420689 0 127 127
-0.573985 -0.030760 0.068074 0 127 127
-0.257464 0.001110 0.475025 153 76 0
0.219000 -0.028102 -0.114404 0 127 127
-0.526882 -0.128031 -0.419287 0 127 127
0.518680 -0.102927 0.017655 255 0 0
-0.185500 0.528006 -0.411912 0 255 0
0.347495 -0.102927 0.469436 0 127 127
-0.645955 -0.104113 0.084837 255 0 0
-0.433594 -0.102927 -0.099916 255 0 0
0.381194 0.475376 -0.397811 127 127 0
-0.228771 0.611529 -0.456279 127 127 0
-0.379003 -0.133244 -0.359551 0 127 127
0.705638 -0.030760 -0.321774 0 127 127
0.303409 0.120545 -0.324727 127 127 0
0.680499 -0.030760 0.285456 0 127 127
-0.485366 -0.104113 -0.190967 0 127 127
-0.216655 0.482023 -0.399592 0 255 0
-0.328392 -0.030760 0.557944 0 127 127
-0.466318 -0.104113 -0.171168 0 127 127
-0.297965 0.048583 -0.305446 127 127 0
-0.613473 -0.023109 -0.096422 0 127 127
-0.546897 -0.030760 0.461658 0 127 127
0.378909 -0.009632 -0.281147 127 127 0
0.154523 -0.102927 -0.238536 0 127 127
-0.453393 -0.013869 -0.251546 153 76 0
0.356515 -0.131982 0.289880 0 127 127
0.226332 0.259784 -0.362034 127 127 0
-0.566459 -0.067790 -0.446110 0 127 127
-0.628691 -0.005396 0.275103 153 76 0
-0.521558 0.518299 -0.409311 127 127 0
0.540312 -0.123585 0.214162 0 127 127
0.160394 0.014751 0.235554 153 76 0
-0.595016 0.342618 -0.362240 127 127 0
-0.005944 0.009534 -0.013711 153 76 0
0.514104 -0.133836 0.056349 0 127 127
0.557838 0.012513 0.096297 204 51 127
-0.332152 -0.129592 0.217241 0 127 127
0.186585 0.009534 0.027647 153 76 0
0.585295 -0.104113 -0.094827 255 0 0
0.279992 0.014751 -0.007471 153 0 76
-0.350188 0.470634 -0.396540 0 255 0
-0.433708 0.398499 -0.377212 0 255 0
0.475004 -0.030760 0.549146 0 127 127
-0.335554 -0.102927 0.316185 0 127 127
-0.374020 0.451805 -0.391495 0 255 0
-0.557333 -0.102927 0.270451 0 127 127
-0.024661 -0.107371 0.191802 0 127 127
-0.692639 -0.032364 0.382740 0 127 127
-0.454752 0.475030 -0.419706 127 127 0
0.029409 0.009963 0.134435 153 76 0
0.021483 -0.118649 0.349893 0 127 127
-0.179081 -0.030760 0.516993 0 127 127
-0.068520 -0.139428 0.504748 0 127 127
-0.661586 -0.102927 -0.242526 0 127 127
0.250378 -0.139428 0.138751 0 127 127
-0.538198 -0.104113 -0.398271 0 127 127
0.131221 -0.133566 -0.031042 0 127 127
-0.512459 -0.104113 0.166611 0 127 127
-0.029420 -0.139688 0.129355 0 127 127
-0.080394 0.126185 -0.304249 0 255 0
0.159280 -0.139207 0.518692 0 127 127
-0.196695 -0.104113 -0.250921 0 127 127
-0.693232 -0.047338 0.476336 0 127 127
-0.563617 -0.102927 -0.131509 0 127 127
0.504950 -0.030760 0.555547 0 127 127
-0.404032 -0.124432 -0.168332 0 127 127
0.376770 -0.028102 0.375456 0 127 127
-0.247810 -0.121535 0.341017 0 127 127
-0.260340 -0.028102 0.310158 0 127 127
-0.260791 0.009534 0.022688 153 0 76
-0.040934 -0.008856 -0.222585 76 153 0
-0.018457 -0.123042 0.171393 0 127 127
0.217201 -0.117899 0.203557 0 127 127
0.661908 -0.030760 -0.244742 0 127 127
-0.041076 -0.102927 -0.049889 0 127 127
-0.559410 -0.104113 0.458184 0 127 127
0.425729 -0.118369 -0.403678 0 127 127
-0.321410 0.115796 -0.323455 127 127 0
0.486698 -0.030760 0.301512 0 127 127
-0.417998 -0.016082 -0.259807 76 153 0
-0.197263 0.641679 -0.442369 127 127 0
0.380459 0.047347 -0.283126 127 127 0
0.008117 -0.030761 -0.084431 0 127 127
0.707043 -0.030761 -0.065578 0 127 127
0.596493 -0.139428 -0.271325 0 127 127
0.067056 -0.117910 0.054999 0 127 127
-0.693232 -0.077115 0.203472 0 127 127
-0.424187 -0.030760 0.080401 0 127 127
-0.118433 0.280386 -0.345566 0 255 0
0.022941 0.176606 -0.317759 0 255 0
-0.171188 -0.133869 0.285369 0 127 127
-0.039039 -0.138381 0.428426 0 127 127
0.704516 -0.136790 0.203055 0 127 127
-0.457593 -0.030760 -0.294603 0 127 127
-0.338563 0.558551 -0.420096 0 255 0
0.280416 0.208400 -0.348267 127 127 0
0.129888 0.009534 -0.059979 153 0 76
-0.466628 -0.117140 0.178314 0 127 127
0.188574 -0.114449 0.010236 0 127 127
-0.628691 -0.008859 -0.044432 153 76 0
-0.493279 -0.139428 0.450561 0 127 127
-0.289123 0.300644 -0.372982 127 127 0
0.422469 -0.116266 0.257873 0 127 127
-0.492149 0.044194 -0.304270 127 127 0
-0.324462 -0.139716 -0.007216 0 127 127
-0.071969 0.014751 0.067457 153 0 76
-0.120719 0.214063 -0.327795 0 255 0
-0.092942 0.014751 0.436062 153 76 0
-0.453672 0.091235 -0.294885 0 255 0
-0.192948 -0.139428 -0.358434 0 127 127
0.341658 -0.078924 0.580840 0 127 127
-0.570094 0.086659 -0.293659 0 255 0
0.438153 -0.030760 0.107843 0 127 127
0.043510 -0.105880 0.204945 0 127 127
0.352573 -0.120761 -0.204913 0 127 127
0.317417 -0.102927 -0.418560 0 127 127
0.281271 -0.028102 -0.169411 0 127 127
0.147625 -0.028102 -0.018774 0 127 127
-0.259668 -0.124504 -0.304158 0 127 127
0.333892 0.543676 -0.416111 0 255 0
0.391657 -0.116230 -0.221461 0 127 127
-0.129866 -0.030760 -0.216372 0 127 127
-0.161883 0.014751 0.031839 153 0 76
0.259432 0.369068 -0.369327 0 255 0
0.513331 -0.102927 0.154773 255 0 0
-0.097316 0.383235 -0.373122 0 255 0
0.753644 -0.104113 0.491143 0 127 127
0.332293 -0.102927 -0.282504 0 127 127
-0.693232 -0.071389 -0.435539 0 127 127
0.290481 -0.001826 -0.217245 153 76 0
-0.160692 -0.023196 -0.232867 0 127 127
0.264784 -0.030760 0.044696 0 127 127
0.008580 -0.104113 0.232377 0 127 127
0.167420 0.195226 -0.344737 127 127 0
-0.588304 0.014751 0.018951 153 76 0
-0.249271 -0.028102 0.221925 0 127 127
-0.693232 -0.062845 -0.288793 0 127 127
0.040239 -0.103330 0.277193 0 127 127
0.617159 -0.139428 0.176730 0 127 127
-0.398880 0.014751 -0.153158 153 0 76
0.521910 -0.102927 -0.033456 0 127 127
-0.001793 0.502853 -0.405172 0 255 0
-0.591414 0.014751 0.155307 153 76 0
0.411564 -0.140156 0.314431 0 127 127
0.368079 -0.104113 0.134508 0 127 127
-0.316025 -0.102927 0.497616 0 127 127
-0.161494 0.509642 -0.406992 0 255 0
-0.634742 -0.104113 0.160826 255 0 0
0.128900 -0.102927 0.202192 0 127 127
-0.418951 0.542836 -0.415885 0 255 0
-0.362844 -0.028102 0.332302 153 76 0
-0.006504 0.542852 -0.437878 127 127 0
-0.302270 -0.030760 0.380750 153 76 0
-0.123060 -0.102927 -0.389673 0 127 127
-0.562958 0.136519 -0.307018 0 255 0
0.213420 -0.139428 0.221797 0 127 127
-0.005480 -0.030760 0.540322 0 127 127
0.511985 -0.136926 -0.396913 0 127 127
0.721409 -0.030760 0.134253 0 127 127
-0.082563 0.575301 -0.446573 0 255 0
-0.549545 0.659222 -0.464456 127 127 0
-0.385025 -0.102927 -0.309540 0 127 127
0.161073 -0.129395 -0.119824 0 127 127
0.502302 -0.113202 0.075393 0 127 127
0.414174 0.109685 -0.299828 127 127 0
-0.264034 -0.106837 -0.321839 0 127 127
0.141501 -0.102927 -0.168976 0 127 127
-0.073091 -0.121794 0.173077 255 0 0
0.335080 -0.030760 0.271981 0 127 127
0.407752 -0.103659 0.380167 0 127 127
0.064257 0.012078 -0.185650 153 76 0
-0.399154 0.662436 -0.447931 127 127 0
0.335058 -0.137346 -0.018025 0 127 127
0.062606 -0.050320 -0.446110 0 127 127
-0.003708 -0.140156 0.085856 0 127 127
0.164237 -0.139265 -0.383034 0 127 127
0.205985 0.297784 -0.350227 0 255 0
-0.429479 -0.010575 0.475025 153 76 0
-0.627731 -0.010132 0.436111 153 76 0
0.117626 0.605081 -0.432563 0 255 0
-0.622590 -0.008645 -0.228297 153 76 0
-0.097069 0.014751 -0.124366 153 0 76
0.464977 -0.102927 0.158132 0 127 127
0.168010 -0.030760 -0.288472 0 127 127
0.214980 0.528979 -0.412173 0 255 0
-0.184556 0.328233 -0.358385 0 255 0
-0.415914 -0.121493 -0.308170 0 127 127
0.020658 0.248157 -0.358919 127 127 0
-0.082755 0.031022 -0.278752 0 255 0
0.537450 -0.102927 -0.422580 0 127 127
-0.285572 0.647658 -0.443971 0 255 0
0.037256 -0.030760 0.487367 0 127 127
-0.578983 -0.104113 0.504808 0 127 127
0.054144 0.173267 -0.316864 0 255 0
0.440044 -0.134969 0.149338 0 127 127
0.170070 -0.117147 0.178307 255 0 0
0.439712 -0.013117 -0.127150 153 76 0
-0.161745 0.352196 -0.364806 0 255 0
-0.221397 0.008079 -0.261419 76 153 0
0.523567 -0.126031 0.423862 0 127 127
0.342092 0.220336 -0.329476 0 255 0
-0.631369 -0.135148 -0.255064 0 127 127
-0.383129 0.534799 -0.413732 0 255 0
0.123279 0.010417 -0.031061 153 0 76
-0.101986 0.045839 -0.304711 127 127 0
0.260720 0.076593 -0.290962 127 127 0
0.114432 0.358461 -0.388473 127 127 0
-0.395129 -0.102927 -0.028263 255 0 0
-0.029321 0.187582 -0.342689 127 127 0
-0.608787 0.451968 -0.409312 127 127 0
-0.056165 -0.046406 0.580840 0 127 127
0.631217 -0.129964 0.550744 0 127 127
-0.601175 -0.139382 -0.273997 0 127 127
0.310622 0.173533 -0.316936 0 255 0
-0.003245 0.014751 0.366647 153 76 0
0.354222 -0.140156 0.042764 0 127 127
-0.074653 -0.102927 -0.272103 0 127 127
-0.004684 -0.090723 0.580840 0 127 127
-0.125825 0.404905 -0.400918 127 127 0
-0.597966 -0.104113 0.196229 255 0 0
-0.560535 -0.102927 -0.294462 0 127 127
0.390013 -0.030760 0.320682 0 127 127
0.678590 -0.102927 -0.341417 0 127 127
-0.500991 0.060089 -0.286540 0 255 0
-0.012108 0.014751 -0.153631 153 0 76
0.699049 -0.030760 -0.416044 0 127 127
-0.317175 0.331557 -0.359276 0 255 0
-0.403081 0.014751 0.472886 153 76 0
0.277140 -0.139428 0.440030 0 127 127
0.703874 -0.104113 0.193814 0 127 127
0.773839 -0.060081 0.142464 0 127 127
-0.520998 0.147593 -0.309985 0 255 0
-0.065871 -0.104113 -0.358383 0 127 127
-0.255156 0.092742 -0.295289 0 255 0
-0.341918 -0.028102 0.025843 0 127 127
0.427785 -0.102927 0.464671 0 127 127
0.416295 0.374210 -0.370704 127 127 0
-0.462609 -0.030760 0.152057 0 127 127
-0.693232 -0.072299 0.019880 0 127 127
-0.126645 -0.104113 -0.124114 0 127 127
0.064601 -0.030761 -0.095103 0 127 127
0.007096 -0.102927 -0.239190 0 127 127
-0.368554 -0.028102 -0.150657 0 127 127
0.115746 0.447844 -0.390434 0 255 0
-0.510897 -0.120774 0.113934 0 127 127
-0.527277 0.391104 -0.375231 0 255 0
0.177011 -0.139428 0.437805 0 127 127
0.435765 -0.140156 -0.201359 0 127 127
0.550417 -0.104113 0.335237 0 127 127
0.423713 -0.117139 -0.124029 0 127 127
0.257604 -0.139428 -0.038749 0 127 127
-0.003859 0.351482 -0.364615 0 255 0
0.029011 -0.140156 -0.158196 0 127 127
-0.223200 -0.136950 -0.396821 0 127 127
-0.046476 -0.017043 -0.263393 127 127 0
0.102239 -0.018716 -0.269638 127 127 0
0.470778 -0.030760 0.416335 0 127 127
0.241695 -0.130057 -0.157608 0 127 127
-0.173942 0.014751 0.378060 127 0 127
-0.387531 -0.028102 -0.090810 0 127 127
-0.229818 -0.139428 0.467740 0 127 127
-0.641103 -0.104113 0.034644 255 0 0
0.258392 -0.028102 0.131885 153 76 0
-0.350026 -0.121661 0.044658 0 127 127
-0.225007 0.101804 -0.297717 0 255 0
0.269807 0.014751 0.168581 153 76 0
-0.199369 -0.126888 0.003865 0 127 127
-0.566279 0.640920 -0.442166 0 255 0
0.330960 0.251866 -0.359913 127 127 0
0.509039 -0.123750 0.344021 0 127 127
-0.621639 0.014751 0.422045 153 76 0
-0.341523 -0.030760 -0.270171 127 127 0
0.273252 -0.104113 0.308520 0 127 127
0.511330 -0.102927 -0.261490 0 127 127
-0.429847 0.007049 -0.265262 127 127 0
-0.275628 -0.140156 -0.133473 0 127 127
-0.442252 -0.030761 -0.026808 153 76 0
0.467995 -0.030760 0.065860 0 127 127
-0.198883 -0.139428 -0.083216 0 127 127
-0.146204 -0.030760 0.306296 0 127 127
-0.256196 -0.036201 0.580840 0 127 127
-0.135942 -0.030760 0.184090 153 76 0
0.342780 -0.138218 0.138291 0 127 127
-0.536462 0.461332 -0.394047 0 255 0
0.119367 -0.121112 -0.308607 0 127 127
0.306496 0.583805 -0.426862 0 255 0
-0.330447 0.009534 -0.012767 153 0 76
0.352224 -0.102927 -0.244274 0 127 127
-0.421992 0.014751 0.393365 153 76 0
0.030589 -0.140156 0.029032 0 127 127
0.232657 -0.111297 0.440321 0 127 127
-0.095645 -0.102927 -0.116431 255 0 0
-0.621163 -0.125933 -0.422661 0 127 127
-0.132354 0.009534 -0.164578 153 0 76
0.351144 -0.102927 0.201587 0 127 127
0.180544 -0.139428 0.248535 0 127 127
0.362442 -0.030760 -0.425690 0 127 127
0.423192 -0.023582 0.412430 0 127 127
0.427594 -0.140156 0.061686 0 127 127
0.095000 -0.104113 -0.296569 0 127 127
-0.198345 0.535379 -0.435876 127 127 0
0.569650 -0.139428 -0.353571 0 127 127
0.062577 -0.081193 0.580840 0 127 127
-0.598609 -0.030760 0.563124 0 127 127
-0.128575 0.011173 -0.137216 153 0 76
-0.031454 0.297849 -0.350244 0 255 0
0.297953 -0.028102 -0.017511 0 127 127
0.440774 0.030388 -0.281688 127 127 0
0.416222 -0.102927 0.146723 0 127 127
-0.145172 0.592904 -0.451289 127 127 0
0.173864 -0.139428 -0.253343 0 127 127
0.100321 -0.030760 -0.325913 0 127 127
-0.541653 -0.030760 -0.343718 0 127 127
-0.419159 -0.104113 0.519990 0 127 127
0.099809 0.153194 -0.333475 127 127 0
-0.531154 -0.139428 0.447014 0 127 127
-0.308530 -0.104113 0.104533 0 127 127
-0.089571 -0.030760 -0.437920 0 127 127
0.496887 -0.102927 0.264084 0 127 127
0.749504 -0.113706 -0.437395 0 127 127
-0.336201 0.192987 -0.322148 0 255 0
0.157863 -0.026418 0.436476 0 127 127
-0.561550 0.228650 -0.353692 0 255 0
-0.004225 -0.104113 -0.144841 0 127 127
-0.517281 -0.116724 -0.050891 0 127 127
-0.223809 -0.028102 0.273786 153 76 0
0.070753 -0.102927 0.171572 0 127 127
-0.493758 0.014751 0.356309 153 76 0
0.020512 0.491723 -0.402190 0 255 0
-0.517739 -0.116394 0.429823 0 127 127
0.340576 -0.136341 0.532374 0 127 127
0.252788 0.466922 -0.395545 0 255 0
-0.174375 -0.129639 -0.159606 0 127 127
0.036495 0.467515 -0.417693 127 127 0
-0.503228 0.310809 -0.353717 0 255 0
-0.294880 -0.017669 -0.265729 0 127 127
0.012433 -0.030760 0.501991 0 127 127
0.349591 -0.134347 0.450354 0 127 127
0.616894 -0.123414 0.343565 0 127 127
0.199010 -0.030760 0.344510 0 127 127
0.272226 -0.030760 0.313967 0 127 127
-0.152167 0.300637 -0.350992 0 255 0
0.394389 0.014009 -0.219555 153 76 0
-0.237970 0.476075 -0.419987 127 127 0
-0.464020 0.545832 -0.416688 0 255 0
0.310389 -0.102927 -0.365925 0 127 127
-0.230322 0.028046 -0.277954 0 255 0
-0.443709 0.295114 -0.349512 0 255 0
0.767844 -0.069375 -0.446110 0 127 127
0.414601 -0.117093 0.434998 0 127 127
0.594445 -0.030760 0.438839 0 127 127
-0.503499 0.130224 -0.305332 0 255 0
-0.385102 0.581832 -0.426334 0 255 0
-0.383980 0.360877 -0.367132 0 255 0
0.663464 0.014991 0.078300 204 51 127
0.225051 -0.106267 -0.065590 0 127 127
-0.693232 -0.093666 0.324998 0 127 127
-0.518032 0.217428 -0.328697 0 255 0
-0.299253 -0.102927 0.035089 0 127 127
0.692767 -0.019087 0.202916 204 51 127
0.402947 0.008716 -0.290469 127 127 0
0.269063 -0.137456 -0.122799 0 127 127
-0.070386 0.014751 0.199724 153 76 0
-0.030997 -0.136327 -0.023454 0 127 127
-0.653581 -0.128376 0.257488 0 127 127
0.203303 -0.030760 -0.423072 0 127 127
0.627106 -0.102927 -0.403027 0 127 127
0.740159 -0.104113 -0.141669 0 127 127
-0.346872 0.014751 0.280644 153 76 0
0.456562 -0.030760 0.494130 0 127 127
0.027491 -0.126517 -0.301190 0 127 127
-0.161106 -0.028102 -0.041801 0 127 127
-0.241632 -0.102927 0.478534 0 127 127
0.500287 -0.139428 0.464656 0 127 127
0.112356 -0.120748 -0.429892 0 127 127
0.498564 -0.048952 -0.446110 0 127 127
0.116766 -0.030760 0.388701 153 76 0
-0.597690 0.601062 -0.431486 127 127 0
0.180107 0.049586 -0.305715 127 127 0
-0.129314 -0.102927 0.478587 0 127 127
0.021471 -0.028102 -0.181544 153 76 0
0.051972 -0.134228 0.151379 0 127 127
0.440774 -0.011748 0.002806 153 76 0
-0.501274 0.377026 -0.371459 0 255 0
-0.539224 0.289998 -0.370130 127 127 0
-0.463363 0.009534 0.026699 153 0 76
0.368499 0.202474 -0.324690 0 255 0
0.690988 -0.104113 -0.002912 0 127 127
-0.083025 -0.102927 0.508354 0 127 127
-0.037073 0.109758 -0.299848 0 255 0
0.087588 -0.090989 0.580840 0 127 127
-0.693232 -0.079407 0.478043 0 127 127
0.122415 -0.120717 0.083350 0 127 127
-0.628691 -0.011590 0.009040 153 76 0
-0.572133 -0.135908 -0.400829 0 127 127
-0.210473 -0.028102 0.138270 153 76 0
-0.138618 -0.123970 -0.280709 0 127 127
0.717185 -0.134063 -0.338362 0 127 127
0.375004 0.014751 -0.191987 153 76 0
-0.573339 0.014751 -0.165388 153 76 0
0.767602 -0.104113 0.052366 255 0 0
0.159066 -0.082394 0.580840 0 127 127
-0.636769 -0.102927 0.306206 0 127 127
0.270040 0.014751 0.417766 153 76 0
0.054118 0.014751 0.229396 153 76 0
-0.301255 -0.028102 -0.015287 153 76 0
0.051670 0.238902 -0.356439 0 255 0
-0.589066 -0.030760 -0.415398 0 127 127
0.039388 0.226272 -0.331066 0 255 0
0.760681 -0.114343 0.302825 0 127 127
0.124696 -0.030760 -0.250717 0 127 127
-0.485196 0.610894 -0.456110 0 255 0
-0.536216 -0.030761 -0.099507 0 127 127
0.396724 -0.140156 -0.202813 0 127 127
0.653742 -0.104113 0.390531 0 127 127
-0.155742 -0.030760 -0.334873 0 127 127
0.241930 -0.030760 -0.202837 153 76 0
-0.230629 0.233405 -0.354966 127 127 0
0.476396 -0.126552 -0.213125 0 127 127
-0.655657 -0.104113 -0.042235 0 127 127
-0.402652 -0.030761 -0.119766 0 127 127
-0.359226 0.254795 -0.360698 127 127 0
0.461687 -0.133667 -0.344533 0 127 127
0.228139 -0.083625 -0.446110 0 127 127
-0.139548 0.624412 -0.459731 127 127 0
-0.391834 -0.030760 0.226462 153 76 0
0.622700 -0.102927 -0.225132 0 127 127
-0.025384 -0.030760 -0.413109 0 127 127
0.472286 -0.102927 0.034666 255 0 0
0.377568 -0.113829 0.572400 0 127 127
-0.511999 0.653470 -0.463864 127 127 0
-0.604944 -0.015475 0.462202 153 76 0
0.327476 0.210708 -0.348885 127 127 0
0.265149 0.405717 -0.401135 127 127 0
0.599219 0.005915 0.174527 204 51 127
-0.522590 -0.139428 0.219637 0 127 127
0.239456 0.103200 -0.320080 0 255 0
0.346927 -0.030760 -0.211500 153 76 0
-0.094699 -0.134784 0.539318 0 127 127
0.291411 -0.102927 -0.130580 0 127 127
0.015167 -0.030760 0.093200 0 127 127
0.690825 -0.102927 0.068847 0 127 127
0.771035 -0.105398 -0.129018 0 127 127
-0.614035 -0.030760 0.066276 0 127 127
-0.256362 0.335172 -0.360245 0 255 0
